-0.171606 0.373024 0.058404
0.098768 0.367042 0.043905
0.044592 0.444200 0.051989
0.099715 0.385102 0.056028
0.212719 0.368701 0.049921
0.128294 0.366423 0.044375
0.126809 0.394833 0.058159
0.178013 0.375648 0.054134
-0.119537 0.413736 0.055919
-0.168216 0.402806 0.059853
-0.167781 0.406366 0.061491
0.114638 0.413225 0.060500
0.181853 0.462755 0.051883
0.036842 0.454868 0.055649
-0.055319 0.382831 0.045122
-0.098582 0.412441 0.052512
-0.124460 0.375553 0.053160
0.010588 0.386506 0.043171
0.066584 0.370190 0.043523
-0.012310 0.441551 0.052202
0.138844 0.378700 0.054738
0.061868 0.436803 0.055111
0.180121 0.421221 0.062850
0.025550 0.410945 0.056034
0.154322 0.394029 0.058851
0.205703 0.418255 0.063069
0.147844 0.380769 0.055493
0.165648 0.459776 0.051104
0.238725 0.359293 0.046865
0.239847 0.380214 0.059093
0.110107 0.448509 0.051346
0.157507 0.415516 0.062328
0.166564 0.434227 0.062499
0.240238 0.371074 0.056510
0.202005 0.467680 0.050439
-0.086394 0.412973 0.051272
0.224958 0.368072 0.048494
-0.156847 0.417686 0.059944
-0.158995 0.407866 0.059918
-0.160448 0.374427 0.054143
0.135370 0.405808 0.060177
-0.036639 0.386301 0.044535
0.027326 0.372668 0.042605
0.041303 0.453331 0.052264
0.181129 0.362138 0.047375
-0.023300 0.432674 0.050477
-0.014065 0.389419 0.043023
0.241989 0.411286 0.062033
0.184480 0.401816 0.060636
0.033868 0.408452 0.057658
0.102107 0.394381 0.056739
0.145672 0.456854 0.050929
-0.128353 0.399057 0.060247
-0.001571 0.464515 0.053575
0.240245 0.361028 0.049733
0.015839 0.461250 0.060393
0.013917 0.388569 0.046064
0.037353 0.398141 0.055369
0.043060 0.371116 0.042741
0.103506 0.399670 0.057552
0.211992 0.380717 0.057029
0.155313 0.363405 0.046169
0.243090 0.459945 0.058632
0.053060 0.440608 0.050358
0.000963 0.390121 0.043297
-0.080779 0.386646 0.053225
-0.143494 0.414369 0.059296
0.021773 0.374985 0.042476
0.242951 0.474076 0.052015
0.094469 0.412567 0.059258
0.194870 0.438159 0.062669
0.226300 0.369264 0.048810
0.170198 0.381498 0.056366
0.131793 0.455271 0.049087
0.017392 0.377988 0.043534
-0.067810 0.404976 0.056680
-0.108073 0.377937 0.052251
-0.032954 0.423881 0.053378
-0.071806 0.413360 0.050331
-0.107210 0.397582 0.058808
-0.008956 0.453117 0.050891
0.024396 0.459250 0.059316
-0.068678 0.380776 0.048737
-0.139642 0.374637 0.055970
-0.132678 0.414617 0.058443
0.121358 0.378773 0.054701
0.118708 0.375943 0.048843
-0.055733 0.416056 0.050313
-0.091136 0.379875 0.050739
-0.108079 0.406580 0.060676
-0.162458 0.408566 0.061097
0.032713 0.395307 0.053332
-0.151256 0.375578 0.055659
-0.107259 0.412244 0.053405
-0.002524 0.419532 0.057990
0.111718 0.366986 0.045687
0.241806 0.425940 0.061840
0.023279 0.449651 0.062337
0.241214 0.395546 0.061412
0.118344 0.426921 0.061252
0.017389 0.395167 0.047982
0.126949 0.370717 0.045540
-0.157638 0.375120 0.056267
0.086298 0.443688 0.052216
0.235987 0.474690 0.049990
0.220779 0.469149 0.051539
0.162540 0.374083 0.052118
0.207954 0.359569 0.049566
0.017034 0.380873 0.043684
0.243252 0.443626 0.061275
